ncols        623
nrows        31
xllcorner    -15.2783599789
yllcorner    35.4779465384
cellsize     0.000834961611
NODATA_value -9999
115 114 120 119 119 117 118 118 118 119 121 121 121 121 123 123 123 124 122 124 125 125 129 126 127 127 128 129 130 133 132 136 140 143 144 142 138 137 138 138 139 140 139 138 139 141 139 139 141 145 144 145 148 148 149 150 150 152 151 151 154 153 154 154 152 153 157 161 169 182 185 187 190 193 195 197 191 177 167 159 167 181 180 187 192 193 197 212 225 234 238 243 251 251 259 262 252 223 220 245 277 312 335 338 347 347 369 404 440 456 470 478 498 509 516 570 612 640 656 663 666 654 654 659 652 652 670 690 700 710 721 733 742 742 745 749 751 753 757 762 768 772 772 766 760 754 745 742 739 739 727 700 716 734 740 740 726 714 702 702 731 752 760 769 775 779 783 781 778 772 772 765 749 749 748 764 770 770 766 759 747 734 736 740 737 730 719 709 697 686 675 663 654 640 628 613 597 566 543 568 610 589 591 641 655 653 650 647 640 620 603 579 582 582 593 583 567 580 583 575 510 463 482 521 553 544 508 491 482 462 462 449 441 448 483 517 555 571 577 580 586 590 585 574 569 565 565 571 564 562 569 580 598 598 607 616 618 624 626 624 616 604 593 583 585 586 588 591 595 595 588 576 565 563 564 559 559 567 571 569 563 559 550 540 530 523 515 499 463 445 454 481 468 468 465 465 466 484 493 500 501 489 479 451 373 322 288 235 261 333 387 429 467 478 481 478 482 488 500 507 510 511 516 525 523 517 517 519 528 522 514 503 481 481 480 481 491 501 503 506 509 511 511 506 506 498 488 490 494 489 477 456 429 386 363 379 393 384 361 338 323 317 347 342 294 247 258 271 281 331 386 393 399 399 391 370 350 371 395 416 422 418 411 410 409 404 396 381 390 404 411 417 420 415 395 370 349 348 367 380 385 398 429 431 429 427 427 423 412 407 409 416 421 421 424 436 443 443 429 416 412 409 398 381 329 257 197 161 137 118 100 86 92 124 150 256 283 311 346 370 361 388 390 394 399 403 402 398 406 410 408 403 392 392 376 389 400 407 412 413 411 408 409 402 392 378 365 342 332 327 339 351 345 341 365 383 390 358 316 281 265 270 281 242 172 111 81 80 115 149 187 210 222 222 227 232 240 246 241 233 227 213 214 226 247 262 292 313 317 302 293 297 312 326 319 316 314 312 310 307 308 313 320 308 270 214 178 150 131 118 82 54 85 85 120 156 224 294 328 327 324 318 314 315 306 299 304 322 342 354 360 349 336 322 320 327 331 338 337 330 324 313 304 299 299 298 296 294 297 303 310 312 322 322 327 325 317 312 310 310 307 309 307 300 299 296 298 289 300 298 289 294 299 290 292 300 300 305 316 325 328 318 236 139 68 42 26 17 9 -9999 -9999 -9999 -9999 -9999 -9999 -9999 -9999 -9999 -9999 -9999 -9999 -9999 -9999
113 115 118 117 116 117 118 118 119 119 121 120 120 120 121 120 124 123 123 123 126 128 129 126 126 128 130 130 130 132 130 135 136 137 138 138 135 136 138 137 138 137 136 137 139 139 139 141 143 145 145 146 148 148 149 149 150 151 152 151 151 150 152 152 152 153 154 160 168 176 184 188 191 196 196 192 178 163 161 168 175 175 177 187 199 206 207 205 212 223 233 245 255 255 265 269 262 239 217 235 281 327 369 392 405 413 439 464 499 515 534 562 581 588 561 561 615 638 647 646 639 618 616 618 631 647 663 676 696 711 721 732 739 739 743 744 745 747 756 763 767 770 770 761 755 742 736 732 729 727 713 690 712 727 733 733 725 704 684 709 736 748 756 765 771 776 780 777 773 768 762 758 744 744 745 759 763 763 759 754 738 730 728 735 734 729 720 709 697 687 674 662 654 642 631 619 602 568 540 561 585 565 594 642 648 647 646 643 639 629 608 588 569 569 563 556 542 574 579 572 514 463 477 507 535 520 489 469 438 417 440 464 471 489 517 549 563 571 573 573 576 583 580 570 559 549 553 557 546 556 573 585 601 601 609 616 616 620 622 623 617 605 594 581 578 581 583 586 590 593 588 577 565 559 561 559 557 564 569 566 559 554 549 545 536 530 522 517 499 458 432 436 424 424 419 418 420 432 443 461 467 452 433 413 359 318 280 253 300 376 409 444 463 464 463 449 465 489 499 504 506 510 514 522 521 514 511 515 524 519 509 499 485 485 471 471 484 496 492 492 500 507 510 500 497 499 498 500 500 492 483 473 451 407 374 399 422 402 383 370 354 344 367 373 347 259 242 248 262 291 363 376 379 379 373 357 339 359 387 408 411 409 403 400 402 400 393 380 384 397 404 410 414 417 401 374 350 344 361 377 385 401 428 426 423 419 423 417 413 409 410 412 412 412 420 434 447 449 431 420 413 408 401 387 350 290 218 170 146 125 107 90 88 113 141 236 274 305 337 365 359 382 384 382 380 384 384 384 394 399 399 397 390 390 377 381 393 401 407 408 406 404 401 396 389 379 364 346 331 319 329 340 333 340 367 376 378 343 300 265 242 252 267 245 180 117 82 76 101 138 173 198 216 216 222 230 237 244 243 233 216 209 228 246 263 292 330 339 337 323 324 331 333 335 330 331 334 333 329 328 327 333 335 325 294 238 191 157 136 116 86 52 80 80 115 136 229 312 325 324 319 310 305 302 299 298 308 326 347 359 357 350 339 326 313 321 323 331 328 325 320 315 304 298 295 293 291 290 293 298 304 313 323 323 327 325 317 312 309 306 302 304 307 309 303 297 293 300 300 300 290 300 296 287 293 299 300 302 309 241 199 163 75 58 38 20 8 -9999 -9999 -9999 -9999 -9999 -9999 -9999 -9999 -9999 -9999 -9999 -9999 -9999 -9999 -9999 -9999
114 116 116 116 115 115 117 119 118 117 118 119 121 121 121 120 120 121 125 123 122 125 125 126 126 127 128 129 129 130 133 135 137 136 135 135 135 135 136 137 136 136 135 137 137 138 141 143 144 147 147 148 150 150 150 150 151 152 152 150 147 147 150 152 152 153 154 159 170 177 187 191 194 197 195 182 163 158 164 173 173 174 182 190 205 218 222 220 219 224 233 249 264 264 274 279 272 249 232 224 243 272 319 363 405 444 507 562 582 596 605 607 610 614 607 569 581 626 626 611 610 624 643 657 665 660 658 671 694 711 723 732 736 736 737 737 742 752 757 764 768 771 765 758 750 738 723 726 718 713 703 683 703 719 723 722 713 685 681 715 735 743 751 762 769 773 775 774 769 767 758 748 735 735 742 753 757 756 751 746 733 726 724 734 733 728 720 711 700 690 679 671 658 648 635 626 611 569 540 526 531 574 621 635 633 627 626 629 633 631 622 614 599 599 579 571 564 553 568 567 548 461 451 475 487 466 431 399 412 464 514 550 556 560 561 559 555 553 550 550 557 561 547 531 544 559 572 585 598 601 604 606 606 606 607 607 610 609 608 605 600 591 586 575 571 575 575 580 585 589 584 577 568 559 554 552 557 559 556 554 551 545 541 536 522 516 503 492 481 490 488 485 468 468 462 485 478 450 411 383 372 362 338 319 305 287 258 257 301 349 407 427 408 407 431 461 484 500 507 503 498 500 504 511 514 509 499 501 511 511 507 503 497 497 477 462 466 466 463 468 480 493 497 490 487 492 501 500 492 485 476 467 447 413 424 442 426 412 393 372 362 379 401 415 417 377 332 275 242 247 298 335 344 344 341 324 328 366 397 402 400 394 386 383 386 383 380 376 370 385 402 407 407 406 397 373 348 333 338 344 356 379 413 414 412 407 408 406 404 410 426 421 421 421 432 446 459 460 462 450 424 405 395 378 357 329 275 205 156 132 109 94 86 96 132 182 250 285 312 327 353 364 369 368 369 363 350 368 379 386 384 385 385 385 375 367 385 395 401 406 402 399 397 392 386 375 360 341 326 313 319 329 324 335 356 358 350 312 280 261 242 235 239 235 191 124 84 75 88 132 174 206 216 216 220 225 231 239 238 224 212 224 243 261 292 326 349 357 354 352 356 357 356 353 351 356 356 349 344 342 341 346 347 337 319 266 205 164 140 122 91 53 68 100 100 137 223 315 317 314 309 301 298 295 296 302 312 329 347 353 352 345 337 325 311 311 313 322 324 320 318 316 308 300 296 293 290 288 291 294 303 309 319 325 325 325 320 308 304 304 310 303 308 312 309 301 308 310 295 296 295 293 296 291 292 295 277 228 178 119 41 48 41 26 12 -9999 -9999 -9999 -9999 -9999 -9999 -9999 -9999 -9999 -9999 -9999 -9999 -9999 -9999 -9999 -9999 -9999 -9999
114 114 116 115 114 115 115 116 117 118 118 118 119 119 119 119 122 121 123 123 123 123 123 125 124 128 127 127 129 130 130 134 135 135 136 134 135 135 134 134 136 136 137 136 138 139 141 142 144 145 145 145 147 147 150 150 152 151 150 149 147 148 150 151 151 151 153 156 167 177 186 192 194 192 187 169 158 160 163 166 170 185 199 207 212 213 214 215 214 219 226 249 274 274 292 301 299 303 311 316 316 310 295 306 354 407 561 598 612 618 622 626 631 635 635 625 600 586 583 606 638 654 658 658 671 680 689 698 702 705 714 721 728 728 738 744 754 758 761 762 762 759 754 748 738 724 708 713 707 691 676 679 697 705 705 694 664 680 708 719 730 737 745 753 761 765 766 761 757 749 743 735 721 721 732 741 743 743 741 736 722 710 720 726 727 724 716 709 698 689 679 670 661 649 633 625 610 579 564 530 531 579 619 628 628 616 609 624 629 629 621 609 604 604 605 599 580 546 563 565 555 487 441 457 471 456 407 391 410 456 489 513 533 544 541 527 524 529 530 531 537 534 528 542 563 574 587 599 606 602 603 604 606 606 604 604 606 603 600 597 588 580 574 567 570 571 575 582 586 585 580 574 568 560 555 549 552 552 550 549 549 547 545 542 538 533 526 516 506 512 512 496 486 486 497 518 522 506 471 420 391 371 351 338 318 290 262 258 297 326 372 379 373 403 439 469 488 502 506 500 498 500 504 511 514 509 499 501 511 511 507 503 497 497 477 462 466 466 463 468 480 493 497 490 487 492 501 500 492 485 476 467 447 413 424 442 426 412 393 372 362 379 401 415 417 377 332 275 242 247 298 335 344 344 341 324 328 366 397 402 400 394 386 383 386 383 380 376 370 385 402 407 407 406 397 373 348 333 338 344 356 379 413 414 412 407 408 406 404 405 416 423 427 427 434 450 465 463 460 446 425 403 386 370 345 319 297 240 172 138 117 96 88 88 123 164 238 262 289 292 354 361 363 365 367 366 356 347 344 353 342 333 344 344 333 357 383 382 387 391 389 381 376 364 365 359 344 333 321 307 308 312 310 317 333 335 333 329 324 313 290 258 233 207 195 151 106 74 74 97 143 195 209 214 214 219 224 224 213 213 234 258 296 322 335 350 358 366 366 367 362 358 356 352 356 363 364 353 338 333 333 338 336 328 321 302 237 177 142 119 105 69 49 77 77 106 113 317 323 313 302 291 291 293 299 301 310 322 331 338 339 335 330 319 303 296 299 307 312 309 309 309 306 298 290 289 288 284 289 297 305 312 321 322 322 323 324 318 311 305 303 308 308 311 307 309 310 309 312 290 293 290 289 289 286 234 210 125 52 38 27 22 14 -9999 -9999 -9999 -9999 -9999 -9999 -9999 -9999 -9999 -9999 -9999 -9999 -9999 -9999 -9999 -9999 -9999 -9999 -9999 -9999
113 113 113 113 115 116 116 118 119 118 118 120 121 121 120 120 120 120 120 121 121 122 123 123 123 125 125 126 127 128 129 132 132 134 132 133 133 134 134 136 137 135 136 137 138 137 137 136 138 140 140 142 146 146 146 147 149 147 147 146 146 148 148 148 150 149 150 151 155 156 157 161 162 160 157 157 159 162 165 175 185 191 190 189 188 193 197 205 217 234 243 251 265 265 290 318 332 347 349 370 383 376 352 328 359 469 569 597 610 618 624 630 634 636 635 628 625 629 624 606 638 654 658 658 671 680 689 698 702 705 714 721 728 728 738 744 754 758 761 762 762 759 754 748 738 724 708 713 707 691 676 679 697 705 705 694 664 680 708 719 730 737 745 753 761 765 766 761 757 749 743 735 721 721 732 741 743 743 741 736 722 710 720 726 727 724 716 709 698 689 679 670 661 649 633 625 610 579 564 530 531 579 619 628 628 616 609 624 629 629 621 609 604 604 605 599 580 546 563 565 555 487 441 457 471 456 407 391 410 456 489 513 533 544 541 527 524 529 530 531 537 534 528 542 563 574 587 599 606 602 603 604 606 606 604 604 606 603 600 597 588 580 574 567 570 571 575 582 586 585 580 574 568 560 555 549 552 552 550 549 549 547 545 542 538 533 526 516 506 512 512 496 486 486 497 518 522 506 471 420 391 371 351 338 318 290 262 258 297 326 372 379 373 403 439 469 488 502 506 500 493 497 499 503 504 501 492 495 504 500 500 502 494 494 472 461 459 459 460 464 474 484 489 489 490 487 493 494 485 477 474 472 446 424 429 430 412 396 386 379 385 402 414 415 408 393 366 324 261 229 256 322 328 328 321 307 337 371 391 400 405 403 389 381 377 376 373 371 370 385 398 400 401 402 395 365 338 329 341 350 366 385 407 412 410 404 400 401 401 405 416 423 427 427 434 450 465 463 460 446 425 403 386 370 345 319 297 240 172 138 117 96 88 88 123 164 238 262 289 292 354 361 363 365 367 366 356 347 344 353 342 333 344 333 333 357 383 382 387 391 389 381 376 364 365 359 344 333 321 307 308 312 310 317 333 335 333 329 324 313 290 258 233 207 195 151 106 74 74 97 143 195 209 214 214 219 224 224 213 213 234 258 296 322 335 350 358 366 366 367 362 358 356 352 356 363 364 353 338 333 333 338 336 328 321 302 237 177 142 119 105 69 49 77 77 106 113 317 323 313 302 291 291 293 299 301 310 322 331 338 339 335 330 319 303 296 299 299 301 301 303 305 301 297 291 287 283 284 291 297 305 315 320 321 321 323 324 320 314 312 309 309 307 309 309 311 313 316 318 306 278 217 97 31 38 33 17 15 15 6 5 -9999 -9999 -9999 -9999 -9999 -9999 -9999 -9999 -9999 -9999 -9999 -9999 -9999 -9999 -9999 -9999 -9999 -9999 -9999 -9999 -9999 -9999
113 114 114 114 115 116 116 118 116 117 117 118 119 119 119 119 120 121 122 123 121 122 123 123 123 125 125 126 127 128 129 132 132 134 132 133 133 134 134 136 137 135 136 137 138 137 137 136 138 140 140 142 146 146 146 147 149 147 147 146 146 148 148 148 150 149 150 151 155 156 157 161 162 160 157 157 159 162 165 175 185 191 190 189 188 193 197 205 217 234 243 251 265 265 290 318 332 347 349 370 383 376 352 328 359 469 569 597 610 618 624 630 634 636 635 628 625 629 624 604 605 625 625 635 659 674 686 690 700 711 720 726 733 733 740 748 753 756 754 756 757 755 750 741 735 723 702 693 693 683 666 675 689 692 685 664 653 691 706 716 724 733 744 750 756 761 762 757 752 745 736 726 712 712 725 736 739 739 736 731 710 704 719 722 723 720 714 706 698 689 678 662 651 641 634 624 609 606 582 529 521 564 602 621 623 604 585 613 623 622 618 615 612 612 605 600 585 538 555 558 553 515 442 439 455 455 436 405 425 450 472 504 529 535 527 527 523 514 511 518 523 520 524 546 562 572 583 593 597 597 599 603 603 603 601 601 601 597 592 591 582 572 565 562 567 569 577 582 585 585 577 572 566 560 555 550 546 546 547 544 545 544 544 542 542 538 535 527 521 525 522 511 516 516 525 531 532 517 502 482 455 445 438 405 362 316 272 252 281 304 327 340 352 391 428 462 485 499 504 499 494 487 489 491 490 488 480 482 493 488 486 492 488 488 469 459 456 458 459 465 475 481 484 485 486 487 493 496 488 472 456 452 438 434 442 430 409 390 381 383 392 409 421 417 411 378 352 335 302 241 231 306 308 308 298 309 338 357 378 391 397 397 384 379 374 372 374 376 366 368 388 389 388 378 360 339 329 339 362 373 378 386 404 410 410 405 399 396 398 401 405 417 426 426 433 443 457 462 462 450 429 402 383 371 345 332 333 290 222 156 129 99 83 88 109 135 199 239 249 264 349 355 358 356 357 362 363 362 348 331 329 317 316 329 329 360 374 371 373 379 376 365 362 342 343 340 329 321 316 308 303 305 309 325 339 345 357 361 356 352 338 299 259 214 175 133 108 84 74 83 141 191 205 211 211 216 219 212 203 222 249 285 318 331 341 354 366 365 367 366 363 362 359 357 353 357 354 346 337 329 325 328 325 319 318 308 263 198 149 118 102 82 49 60 60 93 121 260 308 313 305 292 291 293 294 298 307 315 324 330 330 329 323 313 300 292 293 299 301 301 303 305 301 297 291 287 283 284 291 297 305 315 320 321 321 323 324 320 314 312 309 309 307 309 309 311 313 316 318 306 278 217 97 31 38 33 17 15 15 6 5 -9999 -9999 -9999 -9999 -9999 -9999 -9999 -9999 -9999 -9999 -9999 -9999 -9999 -9999 -9999 -9999 -9999 -9999 -9999 -9999 -9999 -9999
113 114 114 114 115 116 116 118 116 117 117 118 118 119 119 119 120 121 122 123 124 126 126 125 125 128 128 127 126 126 126 130 130 130 129 131 134 134 134 135 135 133 135 135 135 136 138 136 138 137 139 139 142 142 143 144 144 143 143 143 144 147 148 147 148 149 149 150 155 153 152 153 154 154 155 158 159 161 165 171 175 178 180 186 192 199 203 208 218 238 262 279 285 285 308 346 375 391 402 425 443 445 404 352 364 494 574 589 605 614 621 627 629 628 634 634 641 649 651 646 639 637 641 640 640 657 681 697 706 713 719 726 735 735 744 749 752 752 752 754 752 750 744 736 730 720 703 677 679 666 668 680 682 677 660 634 654 684 703 710 717 730 741 748 754 757 756 752 748 743 732 718 706 706 722 732 734 734 731 725 704 703 717 720 718 716 710 705 698 690 680 669 657 647 636 625 617 612 589 544 519 535 577 608 617 597 559 582 613 616 614 613 610 610 603 594 580 533 546 550 548 525 457 425 430 445 423 419 456 485 523 554 573 574 572 565 548 529 531 544 548 540 545 563 564 569 576 584 590 595 599 601 600 600 598 598 594 590 585 586 576 568 560 558 562 566 574 580 585 585 580 570 562 557 555 551 546 540 538 538 539 540 541 538 539 537 534 534 530 529 528 521 526 526 530 532 527 514 496 485 478 470 449 406 353 306 271 247 273 314 338 338 343 369 399 440 474 493 501 505 502 495 493 485 477 473 468 467 474 470 470 480 480 480 466 456 454 454 457 466 477 483 484 486 485 489 490 493 480 452 431 431 433 445 455 448 419 392 380 379 387 402 417 420 421 392 356 327 301 248 227 289 293 293 286 304 322 346 377 388 388 388 381 379 379 380 382 381 364 343 370 362 349 335 325 339 358 362 379 384 385 384 399 406 407 403 396 393 395 398 402 408 415 423 423 434 444 452 458 455 438 412 386 369 350 345 347 312 252 188 136 107 87 86 97 117 157 228 238 261 337 351 354 351 347 354 361 362 353 331 312 303 309 329 329 355 363 361 361 365 359 351 349 331 321 319 316 311 307 304 300 298 309 336 349 356 363 364 359 355 345 323 288 237 196 144 107 92 74 82 140 204 209 212 212 214 205 195 213 234 262 303 322 334 342 353 365 366 362 361 362 364 362 357 350 353 351 347 341 334 330 326 316 308 313 308 279 217 162 124 94 83 60 46 46 74 109 212 278 295 298 289 289 290 292 295 300 307 314 320 322 323 319 309 298 289 287 291 295 295 298 302 303 304 297 286 282 286 292 297 305 313 316 316 316 316 319 324 320 316 312 313 313 310 310 311 316 321 319 264 147 69 29 17 15 15 6 8 13 -9999 -9999 -9999 -9999 -9999 -9999 -9999 -9999 -9999 -9999 -9999 -9999 -9999 -9999 -9999 -9999 -9999 -9999 -9999 -9999 -9999 -9999 -9999 -9999
113 114 115 116 116 117 118 118 118 117 118 118 118 118 119 120 121 122 124 123 124 125 125 126 126 128 128 127 128 128 126 130 128 129 130 131 132 133 133 133 133 133 132 135 135 137 138 138 139 138 139 140 140 141 141 141 144 144 144 143 143 145 146 146 147 147 148 148 151 152 152 154 156 157 159 160 161 166 169 170 173 180 190 203 212 214 217 224 229 249 285 319 327 327 329 362 408 440 456 474 493 473 411 365 380 530 582 592 595 599 605 611 612 619 632 644 651 659 665 670 671 674 678 679 672 669 680 696 704 711 722 733 740 740 744 749 750 749 751 749 747 744 739 729 724 716 703 676 658 659 673 677 671 651 626 622 655 680 693 701 718 731 739 746 753 755 752 748 743 739 730 718 703 703 719 727 729 729 725 717 692 701 712 716 715 712 707 702 693 687 679 669 659 648 639 626 617 602 589 554 509 510 552 580 603 597 548 559 602 604 603 607 604 604 599 586 562 523 538 542 543 534 466 439 413 419 413 445 488 539 568 581 593 594 591 576 557 547 558 570 571 570 579 588 589 586 586 594 599 599 600 599 595 595 598 600 597 587 581 576 570 564 558 556 561 561 569 576 583 585 579 568 562 558 556 550 545 543 537 534 527 525 531 532 530 530 527 525 527 523 522 516 523 523 522 512 497 477 453 430 420 410 387 353 316 273 242 257 301 355 415 428 390 383 415 453 478 496 508 516 518 522 521 514 506 494 481 473 465 457 456 459 457 457 454 450 452 456 461 473 483 491 491 487 484 486 487 477 451 430 422 420 430 450 454 441 416 396 383 375 370 371 380 387 399 395 361 326 299 270 226 222 243 243 253 290 309 340 373 389 397 405 411 413 402 402 393 382 351 311 303 306 332 373 402 414 413 398 385 377 375 376 382 399 398 396 394 394 399 403 416 424 424 419 419 421 430 441 450 454 445 425 397 377 366 360 354 327 279 225 154 116 94 81 90 98 119 189 234 256 317 333 341 344 337 340 346 342 332 319 301 295 312 321 321 333 344 347 351 354 350 341 335 321 312 308 307 305 300 300 299 299 309 330 344 356 359 361 355 347 337 326 299 238 200 144 112 98 72 78 148 201 213 211 211 205 190 213 235 262 300 320 333 341 347 352 359 361 359 359 359 363 360 355 350 354 356 359 349 340 340 337 327 309 296 287 268 228 182 142 106 76 55 37 37 50 58 172 285 303 308 299 293 290 293 293 298 299 306 307 313 316 310 301 292 288 283 285 288 289 294 304 307 308 302 292 279 290 295 300 305 309 313 311 311 310 314 322 321 320 314 315 313 315 314 312 316 313 288 119 63 36 16 12 5 7 -1 -9999 -9999 -9999 -9999 -9999 -9999 -9999 -9999 -9999 -9999 -9999 -9999 -9999 -9999 -9999 -9999 -9999 -9999 -9999 -9999 -9999 -9999 -9999 -9999 -9999 -9999
116 116 115 117 118 117 117 117 118 117 117 117 117 118 120 121 120 121 122 124 125 127 126 127 127 127 127 129 128 128 130 133 133 129 129 130 131 131 132 132 131 135 136 137 136 137 138 140 140 139 140 140 140 141 141 143 144 145 146 147 146 147 146 146 150 149 150 151 155 156 157 158 160 159 162 162 163 169 175 174 179 189 200 215 228 233 237 246 258 273 310 354 354 372 369 385 430 476 505 530 506 447 397 370 395 503 556 576 581 587 593 601 630 641 651 657 664 670 677 685 691 695 701 705 706 707 709 707 711 718 729 736 743 743 748 750 749 745 742 741 740 735 723 718 713 704 689 668 644 663 670 659 624 638 657 641 637 663 694 708 718 728 737 747 750 753 750 744 739 734 726 711 688 688 707 719 721 720 718 710 681 695 705 708 703 701 695 692 689 682 673 661 649 638 627 619 612 599 575 559 541 515 490 492 523 536 516 519 540 537 559 583 589 589 590 588 571 513 505 513 517 516 470 416 393 425 457 510 552 572 579 579 586 587 583 576 577 589 600 599 600 601 601 606 608 603 600 600 598 593 592 589 590 590 603 606 606 598 583 573 566 557 553 548 553 559 563 569 578 580 576 562 554 555 554 548 541 538 533 526 521 515 526 529 530 528 525 521 522 519 519 512 519 519 518 501 480 455 436 435 439 438 420 388 339 277 238 250 298 336 418 434 405 406 436 464 481 496 508 512 509 520 524 520 510 496 485 473 460 455 452 452 449 449 449 451 452 454 465 479 491 494 494 490 481 475 480 468 446 432 424 416 421 434 439 429 418 407 397 386 373 363 368 373 380 373 346 319 293 276 255 223 213 213 245 285 300 334 362 391 407 416 417 415 412 407 395 380 341 300 306 334 366 393 410 413 410 402 390 379 371 371 378 395 395 394 391 393 398 407 422 428 426 420 420 417 418 418 420 427 436 432 420 405 395 380 363 339 304 273 242 193 137 99 82 82 89 103 142 195 254 272 289 302 314 308 289 286 293 294 297 305 310 318 318 337 349 352 353 352 354 357 351 337 329 321 311 305 302 299 292 292 301 316 332 343 350 342 339 332 324 321 299 232 185 127 105 86 71 83 168 199 206 193 193 194 226 241 255 301 332 343 352 362 369 368 365 359 357 356 359 362 364 359 347 350 363 370 359 345 341 336 328 317 298 256 208 182 169 159 138 94 57 36 36 41 85 130 221 289 308 307 307 305 299 292 292 298 298 299 302 305 310 310 306 296 282 277 276 280 287 293 300 302 297 286 280 292 298 303 307 311 315 307 307 305 311 317 321 319 318 314 313 312 312 311 278 216 163 41 27 12 14 -1 7 -9999 -9999 -9999 -9999 -9999 -9999 -9999 -9999 -9999 -9999 -9999 -9999 -9999 -9999 -9999 -9999 -9999 -9999 -9999 -9999 -9999 -9999 -9999 -9999 -9999 -9999 -9999 -9999
122 119 118 118 118 118 119 118 120 118 118 122 122 120 122 123 123 122 121 125 123 124 125 126 126 128 130 132 133 132 132 132 131 132 131 131 133 135 133 133 135 136 136 139 139 138 139 142 142 141 143 144 144 145 145 145 148 149 149 150 153 154 154 155 157 157 158 160 164 164 166 165 166 165 166 167 167 173 189 195 192 193 203 221 256 280 295 307 341 366 370 408 408 461 491 494 508 528 550 543 441 406 420 465 497 572 596 612 620 627 631 635 640 648 653 658 665 672 679 690 696 701 706 710 711 713 715 715 717 726 733 740 740 745 748 748 746 742 733 736 737 732 717 713 708 696 689 668 644 663 670 659 624 638 657 641 637 663 694 708 718 728 737 747 750 753 750 744 739 734 726 711 688 688 707 719 721 720 718 710 681 695 705 708 703 701 695 692 689 682 673 661 649 638 627 619 612 599 575 559 541 515 490 492 523 536 516 519 540 537 559 583 589 589 590 588 571 513 505 513 517 516 470 416 393 425 457 510 552 572 579 579 586 587 583 576 577 589 600 599 600 601 601 606 608 603 600 600 598 593 592 589 590 590 603 606 606 598 583 573 566 557 553 548 553 559 563 569 578 580 576 562 554 555 554 548 541 538 533 526 521 515 526 529 530 528 525 521 522 519 519 512 519 519 518 501 480 455 436 435 439 438 420 388 339 277 238 250 298 336 418 434 405 406 436 464 481 496 508 512 509 520 524 520 510 496 485 473 460 455 452 452 449 449 449 451 452 454 465 479 491 494 494 490 481 475 480 468 446 432 424 416 421 434 439 429 418 407 397 386 373 363 368 373 380 373 346 319 293 276 255 223 213 213 245 285 300 334 362 391 407 416 417 415 412 407 395 380 341 300 306 334 366 393 410 413 410 402 390 379 371 371 378 395 395 394 391 393 398 407 422 428 426 420 420 417 418 418 420 427 436 432 420 405 395 380 363 339 304 273 242 193 137 99 82 82 89 103 142 195 254 272 289 302 314 308 289 286 293 294 297 305 310 318 318 337 349 352 353 352 354 357 351 337 329 321 311 305 302 299 292 292 301 316 332 343 350 342 339 332 324 321 299 232 185 127 105 86 71 83 168 199 206 193 193 194 226 241 255 301 332 343 352 362 369 368 365 359 357 356 359 362 364 359 347 350 363 370 359 335 336 330 325 313 289 244 208 181 160 147 139 104 66 41 41 38 67 103 169 253 295 307 316 314 307 298 294 295 297 298 302 304 309 312 311 303 291 282 274 273 284 288 293 293 290 280 278 290 297 303 310 314 311 295 295 287 269 220 200 172 145 126 111 88 39 42 48 29 12 5 -1 1 -9999 -9999 -9999 -9999 -9999 -9999 -9999 -9999 -9999 -9999 -9999 -9999 -9999 -9999 -9999 -9999 -9999 -9999 -9999 -9999 -9999 -9999 -9999 -9999 -9999 -9999 -9999 -9999 -9999 -9999 -9999
129 126 124 124 122 121 119 120 120 119 119 120 120 123 123 123 123 124 125 125 123 123 126 127 129 128 132 134 133 132 132 131 133 132 129 130 133 132 135 136 135 135 136 138 139 140 139 142 142 141 143 144 144 145 145 145 148 149 149 150 153 154 154 155 157 157 158 160 164 164 166 165 166 165 166 167 167 173 189 195 192 193 203 221 256 280 295 307 341 366 370 408 408 461 491 494 508 528 550 543 441 406 420 465 497 572 596 612 620 627 631 635 640 648 653 658 665 672 679 690 696 701 706 710 711 713 715 715 717 726 733 740 740 745 748 748 746 742 733 736 737 732 717 713 708 696 683 659 638 654 656 629 621 660 673 671 671 684 704 711 720 728 738 746 749 750 746 741 736 731 723 713 690 690 692 712 717 717 714 707 678 692 700 701 697 693 688 686 683 677 670 660 649 640 629 619 609 602 598 584 546 536 534 507 486 485 476 473 479 493 529 567 581 581 588 585 581 546 514 494 487 465 432 403 396 433 484 532 551 564 568 564 574 580 573 568 570 579 590 593 594 595 597 607 612 605 596 594 593 588 586 585 590 590 605 606 604 593 581 573 565 558 550 543 549 556 560 567 575 579 574 564 553 550 550 548 538 533 525 519 519 518 516 522 524 524 521 516 519 514 511 512 522 522 523 512 493 468 457 464 468 462 447 409 348 290 234 238 277 323 396 433 432 433 450 469 486 493 502 503 500 513 520 519 510 500 490 476 456 452 450 448 447 447 449 450 453 458 473 484 489 492 492 489 477 467 464 455 438 431 427 418 413 421 421 418 408 404 399 388 374 364 362 364 365 357 331 310 295 296 287 265 223 223 223 274 302 353 387 406 413 415 414 412 412 410 398 379 342 301 315 344 371 396 406 408 404 399 391 380 371 368 374 388 388 389 386 389 394 407 416 423 423 419 419 418 416 417 419 424 431 435 424 411 398 386 370 339 300 276 260 238 198 140 97 81 79 84 100 133 205 237 255 261 270 275 289 306 309 310 307 309 318 328 328 349 356 354 353 357 358 359 353 346 336 327 315 307 299 296 291 295 304 322 339 345 344 331 319 308 305 292 256 208 160 113 98 79 70 83 149 195 206 180 180 208 256 284 286 307 333 350 360 367 371 370 367 361 354 356 359 360 364 363 356 344 355 365 351 335 336 330 325 313 289 244 208 181 160 147 139 104 66 41 41 38 67 103 169 253 295 307 316 314 307 298 294 295 297 298 302 304 309 312 311 303 291 282 274 273 284 288 293 293 290 280 278 290 297 303 310 314 311 295 295 287 269 220 200 172 145 126 111 88 39 42 48 29 12 5 -1 1 -9999 -9999 -9999 -9999 -9999 -9999 -9999 -9999 -9999 -9999 -9999 -9999 -9999 -9999 -9999 -9999 -9999 -9999 -9999 -9999 -9999 -9999 -9999 -9999 -9999 -9999 -9999 -9999 -9999 -9999 -9999
129 126 124 124 122 121 119 120 120 119 119 120 120 123 123 123 123 124 125 125 123 123 126 127 129 128 132 134 133 132 132 131 133 132 129 130 133 132 135 136 135 135 136 138 139 140 141 142 144 144 145 146 146 146 147 149 150 151 152 152 153 157 159 160 160 160 161 163 168 170 171 172 172 171 169 169 170 176 193 202 206 210 228 248 274 309 335 346 362 396 416 436 436 488 537 545 545 543 549 531 460 419 452 515 560 597 609 618 625 629 633 637 642 647 646 651 662 673 682 693 699 705 709 713 716 718 719 721 725 730 738 743 743 746 747 748 743 739 729 725 730 727 713 708 700 685 669 641 624 639 625 619 650 675 685 689 695 701 707 714 723 729 739 749 749 745 740 736 732 727 718 708 689 689 686 710 715 713 711 704 673 687 694 695 693 688 684 679 675 671 666 659 650 638 626 620 612 604 595 589 583 580 573 553 531 522 525 515 477 463 506 546 569 569 583 583 587 563 537 514 482 443 416 394 398 434 497 534 542 552 554 554 564 569 563 558 560 565 577 585 588 589 592 604 605 598 590 589 588 586 584 581 589 589 607 602 596 577 575 577 568 558 550 541 547 553 558 566 574 578 577 568 555 545 544 540 534 528 524 519 523 523 518 514 518 517 513 508 510 505 504 512 520 520 518 513 503 492 489 487 483 472 457 436 366 301 238 225 259 299 388 430 449 451 465 474 481 491 496 494 489 504 516 516 509 500 485 472 455 452 447 443 449 449 457 457 456 463 475 482 484 486 486 483 474 458 453 448 436 423 417 416 414 412 409 410 397 382 377 372 367 364 358 357 362 363 349 328 313 322 315 291 256 256 212 263 293 356 397 409 407 408 408 405 406 404 401 379 343 294 304 345 375 396 401 402 400 393 389 382 374 365 371 378 379 382 380 385 393 403 408 415 419 418 418 417 414 415 418 423 436 440 435 419 404 385 374 362 335 304 274 256 233 200 149 107 87 79 82 89 146 188 209 210 242 289 317 325 327 322 319 321 328 336 336 350 353 353 350 353 358 356 353 345 337 328 318 307 300 291 290 298 309 324 335 339 340 335 322 300 273 242 217 183 132 102 89 75 67 77 131 186 194 179 179 233 286 315 320 321 332 343 351 357 362 362 362 359 351 357 359 362 363 365 357 336 344 345 319 306 307 306 303 299 273 227 198 174 154 142 132 125 96 59 59 38 45 70 113 199 261 297 318 318 313 306 300 298 301 303 306 311 319 314 312 308 300 285 276 263 271 274 280 286 281 267 278 284 293 302 311 312 322 247 247 171 124 98 89 75 56 43 33 28 20 18 15 11 4 -3 -9999 -9999 -9999 -9999 -9999 -9999 -9999 -9999 -9999 -9999 -9999 -9999 -9999 -9999 -9999 -9999 -9999 -9999 -9999 -9999 -9999 -9999 -9999 -9999 -9999 -9999 -9999 -9999 -9999 -9999 -9999 -9999 -9999
131 128 126 125 124 123 122 122 122 123 123 124 124 123 124 125 125 124 123 124 123 123 126 127 127 130 132 133 133 135 135 133 133 132 131 131 133 133 134 134 133 136 137 139 140 142 143 145 147 147 148 148 148 148 150 152 152 154 155 154 156 159 161 164 163 163 164 170 172 175 177 178 178 176 175 173 173 176 187 201 219 240 260 282 299 329 363 388 403 426 461 492 492 512 542 552 554 554 551 529 478 439 452 505 572 606 613 617 621 626 632 637 640 639 636 647 663 673 683 695 703 706 709 710 715 717 721 725 730 735 739 744 744 747 748 745 741 734 727 718 726 724 711 703 695 679 661 629 619 613 631 656 674 683 692 695 700 704 710 715 724 731 738 746 746 742 736 731 727 722 714 703 703 688 679 702 711 712 709 701 669 682 688 688 687 681 677 673 667 665 663 657 649 636 626 615 610 605 599 597 593 590 588 583 574 572 573 565 527 468 455 507 535 535 559 574 578 556 535 519 501 447 409 384 399 441 500 528 536 545 546 549 559 560 555 550 553 562 573 579 580 580 585 593 591 590 587 584 584 583 580 580 589 589 599 586 573 568 579 582 576 561 552 541 545 553 556 563 571 574 576 571 556 545 539 533 528 523 524 524 525 523 522 514 515 514 509 503 501 500 501 509 515 515 514 510 509 505 509 501 489 476 460 447 396 311 251 209 241 301 371 450 453 461 470 476 485 492 488 481 479 494 508 509 502 495 485 469 452 449 444 443 457 457 465 465 459 462 471 478 479 477 478 478 469 454 441 435 428 426 425 429 428 429 431 420 398 379 365 363 363 361 356 352 360 376 375 355 337 345 340 299 261 261 203 232 280 355 393 403 403 405 402 398 397 392 385 367 335 297 295 342 374 391 393 396 395 388 385 382 376 365 362 367 370 376 380 385 391 399 402 409 413 413 413 414 414 415 415 424 439 442 441 427 411 396 388 379 364 332 292 262 246 225 193 148 107 81 75 74 89 122 155 180 241 276 313 322 325 321 327 332 332 336 336 344 350 349 343 344 348 348 349 342 336 331 322 310 300 287 286 300 310 323 330 335 336 327 311 288 247 204 182 148 104 85 73 67 67 77 123 180 175 187 187 252 296 323 328 331 331 331 333 341 346 347 350 353 347 349 353 360 358 358 354 318 296 277 257 242 239 240 239 242 237 208 181 165 158 157 150 150 132 84 84 49 36 49 80 144 203 253 307 320 316 310 305 304 306 308 313 321 324 319 318 315 308 297 289 276 267 254 252 258 264 255 263 269 233 217 206 201 185 104 78 78 58 53 47 39 30 24 18 13 13 9 10 11 -9999 -9999 -9999 -9999 -9999 -9999 -9999 -9999 -9999 -9999 -9999 -9999 -9999 -9999 -9999 -9999 -9999 -9999 -9999 -9999 -9999 -9999 -9999 -9999 -9999 -9999 -9999 -9999 -9999 -9999 -9999 -9999 -9999 -9999 -9999
131 129 127 125 125 124 126 126 127 128 128 128 128 127 127 128 127 126 129 131 130 129 129 131 130 133 135 136 136 136 135 134 135 133 131 131 130 133 132 134 134 135 139 140 141 144 145 146 149 149 150 151 151 151 152 155 156 155 158 158 159 161 163 166 167 168 167 175 178 180 182 184 185 183 180 177 176 176 180 202 236 264 295 318 342 356 381 416 457 492 520 533 533 533 546 556 561 565 556 532 503 474 456 472 544 594 597 600 606 617 626 630 628 621 622 646 661 673 686 692 701 705 707 709 713 716 722 728 733 736 743 746 749 745 741 735 727 722 715 706 712 710 696 695 686 671 654 627 615 636 655 667 675 684 693 696 702 707 712 717 724 730 733 736 738 733 727 720 715 711 701 688 688 672 669 695 703 705 702 684 659 666 674 676 674 668 662 655 653 655 651 648 639 629 620 610 604 604 601 593 584 582 579 580 584 583 577 567 553 545 493 447 471 471 517 552 556 526 513 504 488 410 386 385 416 491 537 549 548 544 534 544 551 552 546 550 558 563 565 573 581 585 585 580 579 582 584 584 578 574 577 583 590 590 593 580 554 560 575 579 572 559 550 539 538 547 550 551 553 559 566 566 551 536 529 528 521 514 520 522 519 515 511 505 504 509 510 508 500 491 497 503 506 506 509 509 505 501 499 497 489 477 461 450 410 338 265 221 200 284 362 438 456 456 463 473 477 472 463 462 477 490 494 495 490 481 467 461 445 444 441 448 459 459 474 471 462 455 464 472 475 462 454 461 458 450 438 436 431 422 420 416 409 405 404 406 388 375 365 358 353 352 353 351 351 358 352 332 316 323 310 268 204 214 214 268 327 373 388 393 395 397 389 381 361 342 307 285 285 303 333 357 374 381 383 385 382 381 374 363 358 354 346 370 374 378 381 383 383 385 392 398 404 410 410 413 415 411 408 419 427 431 429 425 409 395 385 371 356 340 328 318 292 271 256 234 204 162 109 83 78 73 75 140 183 213 248 284 303 296 297 312 323 323 323 323 332 339 334 329 313 309 320 330 332 330 327 320 305 294 288 304 310 312 315 318 313 283 251 213 185 149 100 71 64 64 65 63 74 111 163 171 148 195 195 239 281 309 326 325 317 301 299 301 317 327 341 338 330 323 315 300 281 274 255 199 167 153 148 143 139 132 129 124 121 117 118 128 138 134 124 107 95 79 79 60 41 38 40 66 102 133 251 299 311 311 309 307 311 316 317 317 323 320 317 315 306 299 295 289 285 280 269 234 216 206 194 166 145 125 86 81 74 53 37 37 28 23 23 18 16 15 13 9 11 6 6 -9999 -9999 -9999 -9999 -9999 -9999 -9999 -9999 -9999 -9999 -9999 -9999 -9999 -9999 -9999 -9999 -9999 -9999 -9999 -9999 -9999 -9999 -9999 -9999 -9999 -9999 -9999 -9999 -9999 -9999 -9999 -9999 -9999 -9999 -9999 -9999
129 127 126 126 126 126 129 132 131 132 132 132 132 133 134 136 133 131 133 141 140 137 137 137 138 141 142 141 141 138 135 137 136 135 135 134 135 134 137 138 141 144 143 144 146 148 150 152 154 154 155 155 155 156 158 160 161 163 162 163 164 167 169 173 175 176 179 189 191 193 196 200 202 200 193 187 187 199 206 197 201 222 261 288 301 312 334 372 410 445 484 523 523 546 559 578 590 591 576 544 523 534 559 565 561 568 586 593 586 573 574 582 597 622 638 639 654 669 678 683 690 696 700 702 707 716 723 730 737 745 749 749 749 743 736 728 722 718 708 701 704 704 689 687 682 667 652 626 604 632 655 665 677 684 690 694 698 704 711 716 722 723 727 731 732 726 721 715 712 703 695 688 688 672 669 695 703 705 702 684 659 666 674 676 674 668 662 655 653 655 651 648 639 629 620 610 604 604 601 593 584 582 579 580 584 583 577 567 553 545 493 447 471 471 517 552 556 526 513 504 488 410 386 385 416 491 537 549 548 544 534 544 551 552 546 550 558 563 565 573 581 585 585 580 579 582 584 584 578 574 577 583 590 590 593 580 554 560 575 579 572 559 550 539 538 547 550 551 553 559 566 566 551 536 529 528 521 514 520 522 519 515 511 505 504 509 510 508 500 491 497 503 506 506 509 509 505 501 499 497 489 477 461 450 410 338 265 221 200 284 362 438 456 456 463 473 477 472 463 462 477 490 494 495 490 481 467 461 445 444 441 448 459 459 474 471 462 455 464 472 475 462 454 461 458 450 438 436 431 422 420 416 409 405 404 406 388 375 365 358 353 352 353 351 351 358 352 332 316 323 310 268 204 214 214 268 327 373 388 393 395 397 389 381 361 342 307 285 285 303 333 357 374 381 383 385 382 381 374 363 358 354 346 370 374 378 381 383 383 385 392 398 404 410 410 413 415 411 408 419 427 431 429 425 409 395 385 371 356 340 328 318 292 271 256 234 204 162 109 83 78 73 75 140 183 213 248 284 303 296 297 312 323 323 323 323 332 339 334 329 313 309 320 330 332 330 327 320 305 294 288 304 310 312 315 318 313 283 251 213 140 103 73 62 60 60 63 67 102 150 154 136 159 199 199 235 272 298 317 319 313 296 285 288 306 315 308 297 291 267 250 234 220 212 194 153 125 111 108 108 104 99 92 86 81 75 74 79 83 82 73 61 55 51 51 43 33 33 29 45 65 85 116 147 178 202 200 198 204 218 227 250 252 267 264 252 244 235 217 207 220 204 168 117 80 43 32 27 28 31 26 21 18 16 15 15 14 12 14 11 11 7 4 5 9 -9999 -9999 -9999 -9999 -9999 -9999 -9999 -9999 -9999 -9999 -9999 -9999 -9999 -9999 -9999 -9999 -9999 -9999 -9999 -9999 -9999 -9999 -9999 -9999 -9999 -9999 -9999 -9999 -9999 -9999 -9999 -9999 -9999 -9999 -9999 -9999 -9999 -9999
128 128 128 130 132 135 139 142 143 143 144 144 143 145 150 149 150 146 143 151 154 154 154 151 152 152 152 149 145 142 138 138 138 140 138 136 137 139 140 140 142 145 146 147 148 149 152 153 156 157 158 158 158 158 160 162 164 165 167 168 170 172 176 181 181 179 188 207 205 200 203 209 202 200 193 187 187 199 206 197 201 222 261 288 301 312 334 372 410 445 484 523 523 546 559 578 590 591 576 544 523 534 559 565 561 568 586 593 586 573 574 582 597 622 638 639 654 669 678 683 690 696 700 702 707 716 723 730 737 745 749 749 749 743 736 728 722 718 708 701 704 704 689 687 682 667 652 626 604 632 655 665 677 684 690 694 698 704 711 716 722 723 727 731 732 726 721 715 712 703 695 674 674 656 671 694 700 701 700 682 660 653 667 672 669 663 655 646 648 649 646 642 635 627 617 605 597 601 600 594 586 576 568 568 574 575 571 564 567 563 522 456 459 459 505 537 542 513 505 493 432 382 371 395 451 520 543 545 544 537 525 536 543 540 539 545 553 558 565 575 581 586 585 577 576 580 584 586 579 578 584 589 594 594 590 576 549 544 565 575 564 551 544 533 537 547 548 542 545 558 569 566 551 536 524 517 513 510 517 520 518 512 507 501 497 508 510 510 502 492 492 499 504 504 506 507 507 504 497 493 494 481 468 454 435 372 287 228 197 273 349 431 448 451 459 466 465 459 453 460 470 480 486 488 486 481 478 466 441 441 441 450 462 462 476 475 464 453 455 467 474 465 450 442 440 433 420 419 415 403 399 396 393 389 384 385 381 369 359 358 356 350 349 346 344 339 322 293 272 292 304 271 219 239 239 281 336 371 381 382 380 376 368 346 321 300 276 289 326 349 359 364 372 376 379 381 380 376 370 359 352 346 344 362 370 374 374 376 377 382 392 398 403 410 410 410 408 404 398 406 416 421 422 417 409 397 383 371 355 346 345 348 333 306 273 249 228 201 155 108 80 75 72 87 138 177 223 249 269 280 290 307 313 314 314 321 330 333 329 322 306 290 297 315 322 325 326 321 316 306 286 305 312 308 301 299 290 240 205 175 140 103 73 62 60 60 63 67 102 150 154 136 159 199 199 235 272 298 317 319 313 296 285 288 306 315 308 297 291 267 250 234 220 212 194 153 125 111 108 108 104 99 92 86 81 75 74 79 83 82 73 61 55 51 43 43 33 33 29 45 65 85 116 147 178 202 200 198 204 218 227 250 252 267 264 252 244 235 217 207 220 204 168 117 80 43 32 27 28 31 26 21 18 16 15 15 14 12 14 11 11 7 4 5 9 -9999 -9999 -9999 -9999 -9999 -9999 -9999 -9999 -9999 -9999 -9999 -9999 -9999 -9999 -9999 -9999 -9999 -9999 -9999 -9999 -9999 -9999 -9999 -9999 -9999 -9999 -9999 -9999 -9999 -9999 -9999 -9999 -9999 -9999 -9999 -9999 -9999 -9999
128 128 128 130 132 135 139 142 143 143 144 144 143 145 150 149 150 146 143 151 154 154 154 151 152 152 152 149 145 142 138 138 138 140 138 136 137 139 140 140 142 145 146 147 148 149 152 153 156 157 158 158 158 158 160 162 164 165 167 168 170 172 176 181 181 179 188 207 205 200 203 209 211 209 203 194 199 227 246 241 229 211 217 240 252 268 290 331 366 389 414 453 453 511 566 589 603 605 596 580 570 581 593 601 601 611 619 622 621 609 586 598 625 641 651 660 659 660 666 672 680 691 696 698 706 715 723 731 740 747 751 748 748 742 733 724 715 711 702 697 699 695 683 681 676 661 643 612 605 642 658 668 676 683 686 693 695 701 708 713 715 718 720 723 722 720 716 712 707 699 689 661 661 651 678 691 696 697 695 682 661 645 661 666 664 662 651 641 639 642 640 633 629 623 614 603 592 595 597 593 584 573 556 556 566 568 566 569 568 561 527 465 465 429 484 518 521 488 462 434 388 376 375 429 500 531 535 534 532 530 521 529 528 529 534 542 552 562 570 575 576 579 579 573 574 581 585 584 573 578 586 591 594 594 588 577 552 541 567 571 553 541 539 529 538 548 551 542 544 562 575 571 556 538 525 515 505 502 511 517 518 511 504 496 497 509 512 507 502 492 489 495 503 503 506 508 508 504 498 488 486 479 473 462 449 428 292 235 196 255 333 435 439 444 451 453 452 449 442 454 460 463 472 479 477 476 476 463 439 438 441 447 460 460 469 473 466 454 451 460 470 468 452 434 421 415 406 402 399 397 399 406 411 409 403 386 372 367 366 368 365 361 353 347 344 351 349 321 265 265 281 263 215 237 237 273 322 357 366 368 364 346 319 302 281 272 278 323 355 366 366 369 371 373 375 380 381 378 371 363 353 340 341 357 365 370 372 371 372 378 386 392 401 406 406 404 403 396 391 393 398 402 405 411 409 399 388 379 366 363 367 367 356 327 282 252 229 211 181 137 102 90 75 71 99 141 179 202 216 244 292 305 304 310 310 315 323 325 323 310 296 283 286 294 308 322 324 324 319 308 283 299 311 306 293 279 260 237 164 132 96 70 62 59 57 61 63 74 102 123 115 138 183 221 221 255 278 293 309 314 312 297 278 276 278 256 236 223 217 201 186 177 170 163 148 115 92 74 77 78 67 70 63 59 57 57 57 59 59 56 53 47 43 39 36 36 33 33 31 31 43 55 71 83 104 117 130 139 144 149 162 166 179 185 181 175 159 141 129 129 119 110 88 54 40 29 21 19 17 17 15 14 15 15 11 11 12 11 11 7 5 5 2 1 -9999 -9999 -9999 -9999 -9999 -9999 -9999 -9999 -9999 -9999 -9999 -9999 -9999 -9999 -9999 -9999 -9999 -9999 -9999 -9999 -9999 -9999 -9999 -9999 -9999 -9999 -9999 -9999 -9999 -9999 -9999 -9999 -9999 -9999 -9999 -9999 -9999 -9999 -9999
129 130 131 132 134 140 143 146 148 148 148 148 149 153 156 157 155 153 152 156 156 157 155 156 156 154 153 150 145 142 139 140 141 142 141 140 141 141 142 142 143 145 147 151 151 153 154 155 158 160 161 161 161 160 162 165 166 167 172 176 178 180 186 193 190 186 193 225 217 211 214 221 224 225 227 219 206 232 268 289 284 268 246 241 269 288 316 341 370 390 407 426 426 474 566 596 611 613 614 610 609 612 617 622 618 622 631 636 637 633 619 607 633 649 659 664 669 661 663 674 684 689 691 695 706 716 723 733 743 749 749 748 748 740 730 720 711 706 695 687 691 690 675 673 668 653 631 600 623 650 663 672 676 682 682 685 689 695 703 709 711 710 712 713 716 715 712 705 703 696 685 657 657 646 671 687 692 693 690 677 666 639 646 657 660 656 649 640 631 635 631 625 620 614 608 598 590 586 590 592 585 573 552 545 555 558 561 565 563 548 520 454 454 395 430 476 466 409 397 381 367 365 406 487 527 532 518 510 503 515 515 514 528 546 546 552 560 567 573 574 567 567 568 568 574 581 582 578 573 578 584 589 591 591 584 575 552 541 565 568 542 533 533 525 535 548 548 539 544 562 578 576 562 545 535 525 512 500 504 512 515 510 500 490 498 509 509 505 499 491 490 493 500 500 505 507 505 503 498 488 474 468 471 466 455 435 348 250 208 194 311 421 425 429 438 440 436 430 437 444 448 447 458 468 470 471 471 460 437 440 442 447 456 456 461 465 463 452 445 450 459 460 453 441 436 429 414 410 410 414 420 427 427 426 416 391 374 377 375 372 366 362 358 358 360 363 357 338 293 242 249 249 209 231 231 266 323 343 338 331 315 295 277 261 271 296 326 358 368 369 368 371 368 368 376 383 386 381 373 362 358 345 341 359 361 366 369 365 369 372 375 380 389 395 395 395 395 396 393 388 387 384 390 403 406 405 398 391 384 374 372 369 352 307 260 227 208 194 166 144 139 122 91 73 78 94 122 152 170 208 264 290 296 308 308 309 315 318 320 315 308 294 277 285 309 319 321 320 314 308 280 276 302 294 286 263 229 192 125 93 69 61 60 62 60 62 69 72 83 105 138 174 197 226 226 263 292 308 313 315 306 280 245 225 213 192 172 158 157 151 142 138 134 122 114 84 68 56 50 50 47 45 47 47 46 46 48 49 48 46 43 40 36 36 32 32 32 31 32 28 31 33 42 51 62 72 87 92 97 103 104 113 119 125 122 115 102 87 80 75 67 56 43 30 25 20 17 16 14 13 12 11 14 13 8 8 8 8 8 5 7 5 -9999 -9999 -9999 -9999 -9999 -9999 -9999 -9999 -9999 -9999 -9999 -9999 -9999 -9999 -9999 -9999 -9999 -9999 -9999 -9999 -9999 -9999 -9999 -9999 -9999 -9999 -9999 -9999 -9999 -9999 -9999 -9999 -9999 -9999 -9999 -9999 -9999 -9999 -9999 -9999 -9999
132 132 134 136 138 141 144 147 150 151 151 151 154 156 157 158 159 156 155 158 157 158 156 155 155 155 154 150 145 143 142 141 143 143 145 144 144 145 144 145 147 149 150 153 155 155 157 158 161 163 165 165 164 165 166 169 170 172 177 181 186 191 199 206 202 192 195 236 230 230 240 241 241 252 264 254 227 228 277 321 336 322 284 265 312 363 395 405 410 439 463 463 491 489 541 593 611 608 611 616 620 625 632 636 633 635 644 649 647 645 639 624 635 653 662 669 675 674 670 671 678 686 695 700 711 719 727 735 742 747 747 745 745 735 727 719 706 696 688 681 683 683 670 664 661 645 612 597 638 656 668 674 670 669 664 674 683 689 694 693 690 693 698 704 708 706 703 697 692 685 673 641 641 636 663 678 683 684 681 669 662 651 632 642 650 647 641 632 616 619 614 607 598 589 581 577 569 578 587 595 591 571 556 541 518 514 540 546 542 535 511 453 453 382 358 368 365 352 354 371 385 483 502 508 514 499 499 530 540 531 523 528 544 552 555 557 562 565 569 568 561 555 563 567 570 570 563 567 575 578 581 582 582 582 575 566 544 523 545 548 525 511 508 510 530 554 541 522 531 548 565 560 561 555 542 532 520 503 491 499 499 494 484 481 483 492 499 493 486 481 480 487 490 490 494 499 502 501 501 492 475 446 448 450 435 420 402 324 248 191 269 331 390 390 396 380 367 352 366 376 399 430 451 458 461 458 459 456 438 443 446 443 445 445 442 445 443 442 440 440 441 442 445 446 450 445 444 454 461 462 459 455 441 425 417 408 403 404 406 401 393 395 388 379 376 377 371 363 338 268 222 182 191 229 229 247 254 254 242 232 234 264 313 338 350 368 380 388 389 385 375 370 361 362 371 378 378 375 367 355 343 329 339 360 362 365 364 358 352 353 358 365 369 375 375 383 390 393 396 394 389 379 369 380 388 388 389 392 388 375 355 342 310 252 250 261 248 219 200 222 218 190 154 116 83 71 68 71 85 118 151 190 223 255 255 266 273 278 288 287 272 269 281 303 309 307 302 289 274 264 245 225 237 235 218 189 156 119 62 57 57 58 58 59 94 133 153 165 183 212 243 270 273 257 266 266 294 304 290 265 223 183 151 116 99 93 84 75 79 85 82 102 90 84 77 58 50 45 42 42 40 40 41 42 41 39 40 39 37 37 33 34 33 30 29 29 30 29 30 27 28 28 32 37 41 48 56 61 61 63 62 67 69 74 74 70 63 53 45 42 37 32 29 23 23 19 15 13 13 13 10 8 9 9 7 7 8 8 6 5 5 -9999 -9999 -9999 -9999 -9999 -9999 -9999 -9999 -9999 -9999 -9999 -9999 -9999 -9999 -9999 -9999 -9999 -9999 -9999 -9999 -9999 -9999 -9999 -9999 -9999 -9999 -9999 -9999 -9999 -9999 -9999 -9999 -9999 -9999 -9999 -9999 -9999 -9999 -9999 -9999 -9999 -9999
134 135 138 140 140 143 146 146 148 150 152 152 154 155 156 158 159 159 158 158 157 158 155 154 154 153 150 149 145 145 143 144 145 148 147 148 149 149 148 147 150 151 154 156 158 159 160 162 165 168 168 171 174 181 189 189 181 177 185 195 205 210 221 233 226 212 207 281 303 301 323 318 297 312 341 329 291 260 260 301 351 390 382 344 365 412 499 525 521 545 565 565 580 586 581 564 550 555 580 616 631 639 644 643 648 652 655 657 658 658 654 647 646 641 658 668 677 682 688 691 694 699 705 712 719 724 729 734 737 741 739 735 735 730 722 713 705 697 689 675 665 665 648 647 637 620 591 608 645 659 666 666 666 658 660 674 681 684 686 686 680 687 693 700 705 703 698 692 686 680 668 634 634 631 664 674 680 679 676 666 659 652 635 631 645 643 637 624 607 609 605 593 586 579 571 564 563 575 587 595 591 571 556 541 518 514 540 546 542 535 511 453 453 382 358 368 365 352 354 371 385 483 502 508 514 499 499 530 540 531 523 528 544 552 555 557 562 565 569 568 561 555 563 567 570 570 563 567 575 578 581 582 582 582 575 566 544 523 545 548 525 511 508 510 530 554 541 522 531 548 565 560 561 555 542 532 520 503 491 499 499 494 484 481 483 492 499 493 486 481 480 487 490 490 494 499 502 501 501 492 475 446 448 450 435 420 402 324 248 191 269 331 390 390 396 380 367 352 366 376 399 430 451 458 461 458 459 456 438 443 446 443 445 445 442 445 443 442 440 440 441 442 445 446 450 445 444 454 461 462 459 455 441 425 417 408 403 404 406 401 393 395 388 379 376 377 371 363 338 268 222 182 191 229 229 247 254 254 242 232 234 264 313 338 350 368 380 388 389 385 375 370 361 362 371 378 378 375 367 355 343 329 339 360 362 365 364 358 352 353 358 365 369 375 375 383 390 393 396 394 389 379 369 380 388 388 389 392 388 375 355 342 310 252 250 261 248 219 200 222 218 216 191 169 133 104 89 78 69 74 102 149 172 201 201 221 220 240 246 252 277 292 311 321 311 297 280 264 250 237 223 199 197 201 171 136 103 75 57 53 56 59 61 93 140 161 172 182 207 241 272 293 294 281 278 278 288 276 240 206 175 146 121 97 76 63 56 53 59 62 56 52 45 44 40 36 35 36 34 35 33 32 33 34 33 31 30 29 30 30 29 27 26 29 30 30 28 30 32 31 28 28 26 25 29 31 30 31 30 32 32 32 34 32 35 34 32 31 29 25 23 20 20 21 17 13 15 12 10 10 9 8 7 6 4 4 3 3 1 -9999 -9999 -9999 -9999 -9999 -9999 -9999 -9999 -9999 -9999 -9999 -9999 -9999 -9999 -9999 -9999 -9999 -9999 -9999 -9999 -9999 -9999 -9999 -9999 -9999 -9999 -9999 -9999 -9999 -9999 -9999 -9999 -9999 -9999 -9999 -9999 -9999 -9999 -9999 -9999 -9999 -9999 -9999 -9999
138 140 142 145 146 147 148 147 151 151 152 152 151 154 155 155 155 157 157 157 156 154 155 154 150 151 148 147 147 147 147 150 151 154 155 157 155 155 157 158 160 160 161 163 165 164 165 170 173 174 174 174 180 191 202 203 188 182 188 206 224 221 235 252 256 238 221 300 337 344 361 359 335 337 369 369 326 286 287 337 377 415 418 376 380 436 511 538 549 566 581 581 593 604 607 594 564 572 587 616 631 639 644 643 648 652 655 657 658 658 654 647 646 641 658 668 677 682 688 691 694 699 705 712 719 724 729 734 737 741 739 735 735 730 722 713 705 697 689 675 665 665 648 647 637 620 591 608 645 659 666 666 666 658 660 674 681 684 686 686 680 687 693 700 705 703 698 692 686 680 668 634 634 631 664 674 680 679 676 666 659 652 635 631 645 643 637 624 607 609 605 593 586 579 571 564 563 575 579 578 575 568 555 553 524 498 510 529 533 525 519 467 467 401 354 343 342 401 428 477 494 479 476 481 480 484 516 537 542 543 540 537 542 548 552 556 562 568 571 564 553 560 563 559 554 555 560 567 570 574 575 578 579 579 575 569 549 519 532 537 513 517 532 541 549 550 531 519 533 554 557 543 550 551 538 527 515 502 485 487 490 486 477 474 478 490 495 490 479 474 477 484 484 484 491 498 502 501 498 487 473 444 429 433 425 407 386 359 223 188 247 307 374 376 378 343 327 334 355 379 405 431 452 457 456 451 449 444 434 441 442 441 439 439 439 440 439 440 436 436 439 440 445 449 452 457 462 467 468 468 464 457 451 444 442 431 422 416 414 413 411 411 399 387 380 375 372 363 325 249 201 167 182 208 208 208 213 216 207 235 285 328 363 369 373 383 392 394 392 390 384 372 362 357 363 371 371 366 360 348 332 318 339 356 361 358 352 346 347 359 369 371 369 373 373 380 388 391 396 390 385 377 366 363 368 370 380 386 381 364 335 316 296 303 320 310 271 228 208 231 231 216 191 169 133 104 89 78 69 74 102 149 172 201 201 221 220 240 246 252 277 292 311 321 311 297 280 264 250 237 223 199 197 201 171 136 103 75 57 53 56 59 61 93 140 161 172 182 207 241 272 293 294 281 278 278 288 276 240 206 175 146 121 97 76 63 56 53 59 62 56 52 45 44 40 36 35 36 34 35 33 32 33 34 33 31 30 29 30 30 29 27 26 29 30 30 28 30 32 31 28 28 26 25 29 31 30 31 30 32 32 32 34 32 35 34 32 31 29 25 23 20 20 21 17 13 15 12 10 10 9 8 7 6 4 4 3 3 1 -9999 -9999 -9999 -9999 -9999 -9999 -9999 -9999 -9999 -9999 -9999 -9999 -9999 -9999 -9999 -9999 -9999 -9999 -9999 -9999 -9999 -9999 -9999 -9999 -9999 -9999 -9999 -9999 -9999 -9999 -9999 -9999 -9999 -9999 -9999 -9999 -9999 -9999 -9999 -9999 -9999 -9999 -9999 -9999
139 140 142 145 146 147 148 147 151 151 151 152 151 154 155 155 155 157 157 157 156 154 155 154 150 151 148 147 147 147 147 150 151 154 155 157 155 155 157 158 160 160 161 163 165 164 165 170 173 174 174 174 180 191 202 203 188 182 188 206 224 221 235 252 256 238 221 300 337 344 361 359 335 337 369 369 326 286 287 337 377 415 418 376 380 436 511 538 549 566 581 581 593 604 607 594 564 572 587 604 622 631 635 639 645 650 652 656 658 661 660 658 660 654 657 669 677 683 692 696 700 705 710 715 717 723 728 730 733 735 735 732 732 728 719 711 704 696 690 682 669 660 638 629 620 602 574 609 646 656 661 659 656 649 661 671 675 679 680 675 674 686 693 700 702 697 692 686 680 675 662 625 625 633 662 671 675 675 672 662 656 648 636 621 636 637 628 620 602 595 593 584 573 569 565 556 554 568 567 566 567 566 556 561 543 514 485 489 511 517 511 477 477 414 357 336 393 459 499 501 475 466 502 518 506 504 520 535 540 542 544 543 539 544 550 558 563 569 568 554 549 554 550 546 554 559 563 564 570 573 575 574 573 573 569 563 546 516 511 513 503 519 537 549 553 551 529 516 535 550 541 531 546 549 536 522 513 506 494 482 480 478 471 468 472 482 486 480 471 470 478 480 485 485 494 501 502 500 493 482 471 450 427 419 411 400 374 328 212 184 227 287 348 348 348 324 329 352 371 400 423 446 459 457 453 448 442 438 435 436 437 439 436 436 436 435 435 433 433 435 440 445 454 460 460 465 467 472 472 466 459 456 453 448 442 438 431 421 411 408 410 408 397 386 379 370 362 345 286 229 184 200 218 223 223 220 232 234 242 278 333 359 379 383 386 392 394 394 390 384 383 375 366 356 351 361 362 358 353 339 313 316 338 355 356 352 343 344 355 364 370 374 374 380 380 386 391 390 394 390 380 370 363 353 350 357 371 374 360 333 305 296 300 320 335 320 272 225 213 240 264 260 254 237 213 181 154 129 103 76 71 95 142 164 164 172 172 213 240 281 308 320 322 321 312 283 253 235 227 218 209 182 155 150 118 84 64 57 55 54 57 66 103 142 154 166 181 199 229 263 291 307 309 298 281 281 261 226 187 159 135 116 96 81 69 57 47 46 45 44 43 42 38 36 35 33 32 33 32 33 31 31 32 31 31 30 27 29 30 29 26 26 26 32 29 29 21 22 28 29 27 27 26 26 23 25 27 25 27 28 28 29 28 30 29 30 27 27 24 21 20 21 19 16 13 14 16 13 8 12 8 7 8 5 5 5 4 4 -9999 -9999 -9999 -9999 -9999 -9999 -9999 -9999 -9999 -9999 -9999 -9999 -9999 -9999 -9999 -9999 -9999 -9999 -9999 -9999 -9999 -9999 -9999 -9999 -9999 -9999 -9999 -9999 -9999 -9999 -9999 -9999 -9999 -9999 -9999 -9999 -9999 -9999 -9999 -9999 -9999 -9999 -9999 -9999 -9999
139 141 142 145 146 147 148 149 150 150 150 150 151 153 154 154 154 153 154 154 152 153 154 155 153 153 150 150 149 150 150 151 154 157 159 161 161 161 163 163 164 165 167 169 172 170 170 176 181 181 180 180 189 204 216 217 197 185 194 210 233 236 252 278 297 287 242 276 329 370 400 396 375 375 393 388 349 323 322 365 421 460 447 413 400 464 538 556 570 586 598 598 610 617 613 596 585 595 606 605 605 610 617 628 643 649 652 652 656 661 663 666 669 668 668 673 679 685 694 700 704 709 711 713 716 718 723 725 728 731 732 732 728 723 716 707 702 696 686 680 671 650 646 619 594 573 576 625 645 651 656 655 648 646 656 666 668 671 673 665 671 683 691 696 698 693 688 681 674 669 658 625 625 633 659 668 670 670 667 655 649 642 634 611 623 627 623 616 604 589 574 570 566 560 557 549 548 559 557 561 557 558 554 550 549 534 511 478 476 495 482 465 465 417 358 338 455 486 487 467 460 497 528 533 529 526 527 535 539 543 546 542 542 544 551 557 560 565 563 546 543 544 538 552 557 559 557 560 570 574 576 571 568 568 557 554 544 523 501 490 499 523 543 551 552 553 532 510 534 547 530 525 548 550 539 521 511 509 507 496 483 475 469 465 467 470 472 470 465 470 484 487 491 491 497 498 501 501 493 481 472 463 448 434 421 409 381 319 218 176 221 286 306 306 300 305 342 372 384 402 422 446 458 457 455 450 444 436 431 435 435 436 435 435 433 429 430 432 432 435 444 454 466 467 468 472 472 471 467 461 455 453 451 445 433 432 431 423 403 396 402 405 399 391 385 374 349 306 255 212 191 213 240 259 259 280 303 313 298 302 337 361 376 380 383 388 393 396 390 385 380 377 369 360 346 345 351 348 343 332 307 316 336 351 351 346 336 346 357 363 369 377 381 385 385 388 391 388 388 386 383 372 362 353 342 352 358 361 348 315 302 316 321 330 335 315 273 223 234 264 308 303 301 302 288 279 251 193 148 100 67 68 98 126 126 144 173 221 264 299 320 325 324 317 305 267 234 217 206 202 195 168 122 98 76 61 56 56 56 62 79 105 138 149 151 161 180 207 242 284 307 312 309 293 256 256 222 178 147 123 105 89 74 65 57 50 44 42 42 41 40 37 36 34 32 32 30 32 31 30 30 31 30 28 26 27 26 28 24 24 25 26 25 25 25 25 21 25 27 27 23 26 24 24 23 24 22 23 24 26 24 24 24 28 27 24 22 25 23 21 18 19 14 12 10 10 10 13 4 9 10 10 9 6 6 6 6 5 -9999 -9999 -9999 -9999 -9999 -9999 -9999 -9999 -9999 -9999 -9999 -9999 -9999 -9999 -9999 -9999 -9999 -9999 -9999 -9999 -9999 -9999 -9999 -9999 -9999 -9999 -9999 -9999 -9999 -9999 -9999 -9999 -9999 -9999 -9999 -9999 -9999 -9999 -9999 -9999 -9999 -9999 -9999 -9999 -9999
136 140 143 145 147 147 148 149 149 149 149 150 150 150 152 152 151 151 152 153 154 153 153 155 154 153 151 151 150 152 152 155 157 159 163 164 165 164 167 171 173 176 177 178 177 177 176 178 189 189 185 185 190 210 230 227 200 191 200 214 234 253 264 293 325 327 287 293 321 381 429 430 423 427 437 435 395 379 369 384 440 498 493 464 447 505 557 571 588 603 617 617 623 620 611 603 610 619 625 624 610 602 611 620 639 645 649 651 658 665 668 673 676 679 680 683 687 692 697 702 706 708 709 711 711 714 716 719 724 727 727 727 724 718 713 705 699 692 682 671 666 646 640 629 588 565 598 632 642 646 649 649 638 645 654 659 662 663 661 660 673 683 690 692 694 689 682 676 670 662 649 615 601 627 649 655 658 658 654 643 635 629 628 629 622 608 592 586 586 571 563 553 532 534 542 537 528 535 538 543 543 539 527 522 523 521 513 496 463 438 431 423 423 374 338 338 432 447 471 499 521 525 518 520 520 525 533 539 536 536 536 535 538 541 546 549 550 552 549 541 526 528 543 544 550 554 548 553 559 562 569 567 562 562 553 544 523 508 501 471 500 538 548 538 535 542 525 504 519 535 532 516 519 531 531 513 501 509 516 517 508 491 473 461 456 459 459 462 470 480 493 493 492 492 487 485 488 496 492 482 472 463 451 440 421 411 395 335 256 190 178 214 257 297 330 358 378 396 414 435 448 456 456 458 459 455 449 438 432 428 424 427 428 428 428 430 435 435 437 439 445 456 463 469 473 474 471 467 463 457 451 448 442 435 425 409 418 424 408 384 382 392 395 391 380 360 315 267 223 180 197 233 277 310 310 340 357 358 347 327 331 349 363 366 369 386 392 392 387 381 378 372 367 357 345 329 317 325 320 304 302 326 331 337 330 323 323 334 349 362 369 372 379 387 387 398 406 397 385 377 371 366 358 354 346 340 339 341 344 339 350 355 354 342 314 287 250 236 274 318 346 345 341 343 334 329 314 279 212 147 93 68 68 115 115 164 205 239 284 315 322 321 312 304 279 245 217 201 187 168 157 166 173 135 69 53 56 72 137 142 128 139 142 140 151 165 186 216 251 284 302 304 298 269 227 227 182 134 110 94 79 67 56 49 45 42 41 41 40 38 39 36 34 33 31 30 29 29 29 31 33 29 29 26 26 27 22 26 26 26 24 27 27 28 25 25 22 28 28 27 26 24 26 28 26 24 24 22 22 25 22 21 21 24 25 25 20 18 20 19 17 17 13 13 14 11 4 7 10 12 10 11 8 5 5 4 4 -9999 -9999 -9999 -9999 -9999 -9999 -9999 -9999 -9999 -9999 -9999 -9999 -9999 -9999 -9999 -9999 -9999 -9999 -9999 -9999 -9999 -9999 -9999 -9999 -9999 -9999 -9999 -9999 -9999 -9999 -9999 -9999 -9999 -9999 -9999 -9999 -9999 -9999 -9999 -9999 -9999 -9999 -9999 -9999 -9999 -9999
136 137 141 144 145 146 147 148 148 148 148 148 148 149 150 151 151 153 152 152 154 155 156 155 154 154 154 154 153 155 156 161 163 167 168 170 170 172 178 182 186 192 194 191 187 186 184 184 196 203 203 194 187 203 226 227 209 198 207 229 257 281 291 306 342 368 348 350 342 379 447 535 525 533 532 522 518 516 493 489 535 557 567 567 557 535 560 599 613 621 624 624 626 622 622 629 634 638 639 635 628 627 629 637 639 645 651 657 664 670 675 679 682 686 690 693 695 696 698 700 702 705 705 704 699 696 690 703 714 717 718 718 716 713 707 700 692 684 677 668 652 644 625 609 585 579 611 628 631 638 638 627 629 639 642 644 644 640 650 667 675 682 687 686 680 675 668 663 658 649 634 604 604 625 642 648 650 651 647 637 626 617 626 631 627 622 619 611 603 586 571 558 547 532 525 525 515 524 530 529 533 529 518 512 517 511 499 499 490 452 416 381 381 339 331 354 474 495 504 510 512 512 508 514 518 524 535 541 531 529 530 530 532 538 542 546 546 545 542 537 525 525 538 540 544 545 546 550 550 558 569 566 566 559 547 542 519 491 483 466 507 538 546 538 523 532 518 496 503 523 534 519 512 528 527 511 497 501 515 514 504 487 471 462 455 454 457 467 477 489 491 485 484 484 479 477 482 485 488 490 478 465 450 426 408 398 378 317 248 186 171 223 285 335 362 385 397 411 430 445 452 456 455 454 454 454 449 438 434 429 423 421 425 425 431 436 443 444 444 443 444 455 460 463 469 468 467 462 457 455 452 448 442 435 425 409 418 424 408 384 382 392 395 391 380 360 315 267 223 180 197 233 277 310 310 340 357 358 347 327 331 349 363 366 369 386 392 392 387 381 378 372 367 357 345 329 317 325 320 304 302 326 321 320 318 324 338 345 353 367 375 379 387 398 398 407 410 410 399 391 379 371 369 370 362 357 363 366 375 378 378 376 363 333 298 266 239 245 282 321 347 345 339 329 311 298 284 259 217 156 94 67 64 109 157 157 191 229 282 315 315 305 299 286 258 230 211 192 178 161 151 142 146 100 57 54 82 118 145 141 129 127 140 151 165 183 209 242 274 278 275 255 222 189 138 138 95 66 57 51 46 42 39 37 36 36 36 35 34 33 33 32 31 29 30 28 30 27 28 27 26 27 23 25 27 28 29 25 21 25 25 30 25 23 26 26 25 23 24 23 22 23 22 24 26 26 25 25 25 22 19 18 19 18 16 16 14 17 16 12 14 14 16 11 6 12 6 7 8 9 7 7 8 4 3 3 3 -9999 -9999 -9999 -9999 -9999 -9999 -9999 -9999 -9999 -9999 -9999 -9999 -9999 -9999 -9999 -9999 -9999 -9999 -9999 -9999 -9999 -9999 -9999 -9999 -9999 -9999 -9999 -9999 -9999 -9999 -9999 -9999 -9999 -9999 -9999 -9999 -9999 -9999 -9999 -9999 -9999 -9999 -9999 -9999 -9999 -9999
139 140 140 139 142 142 143 142 143 144 144 145 146 148 148 150 149 150 153 156 157 157 157 159 157 156 156 156 158 164 166 178 190 194 190 183 184 199 212 214 224 238 240 241 232 229 228 218 229 243 243 236 212 203 222 237 240 228 236 281 313 352 384 396 415 458 481 478 472 452 487 540 550 553 553 542 543 549 532 535 564 578 584 589 585 559 555 587 604 612 617 617 624 627 632 639 643 645 641 637 637 637 631 637 647 650 653 659 663 670 676 679 683 687 690 692 691 693 695 696 699 701 702 700 699 696 690 703 714 717 718 718 716 713 707 700 692 684 677 668 652 644 625 609 585 579 611 628 631 638 638 627 629 639 642 644 644 640 650 667 675 682 687 686 680 675 668 663 658 649 634 604 604 625 642 648 650 651 647 637 626 617 626 631 627 622 619 611 603 586 571 558 547 532 525 525 515 524 530 529 533 529 518 512 517 511 499 499 490 452 416 381 381 339 331 354 474 495 504 510 512 512 508 514 518 524 535 541 531 529 530 530 532 538 542 546 546 545 542 537 525 525 538 540 544 545 546 550 550 558 569 566 566 559 547 542 519 491 483 466 507 538 546 538 523 532 518 496 503 523 534 519 512 528 527 511 497 501 515 514 504 487 471 462 455 454 457 467 477 489 491 485 484 484 479 477 482 485 488 490 478 465 450 426 408 398 378 317 248 186 171 223 285 335 362 385 397 411 430 445 452 456 455 454 454 454 449 438 434 429 423 421 425 425 431 436 443 444 444 443 444 455 460 463 469 468 467 462 457 455 452 445 440 440 433 408 402 410 397 369 367 379 379 372 361 336 298 266 235 180 154 207 296 332 332 342 358 357 348 335 336 348 356 356 362 378 384 381 377 371 367 362 352 339 330 325 307 303 304 287 300 316 321 320 318 324 338 345 353 367 375 379 387 398 398 407 410 410 399 391 379 371 369 370 362 357 363 366 375 378 378 376 363 333 298 266 239 245 282 321 340 345 339 329 311 298 284 259 217 156 94 67 64 109 157 157 191 229 282 315 315 305 299 286 258 230 211 192 178 161 151 142 146 100 57 54 82 118 145 141 129 127 140 151 165 183 209 242 274 278 275 255 222 189 138 138 95 66 57 51 46 42 39 37 36 36 36 35 34 33 33 32 31 29 30 28 30 27 28 27 26 27 23 25 27 28 29 25 21 25 25 30 25 23 26 26 25 23 24 23 22 23 22 24 26 26 25 25 25 22 21 20 17 18 17 18 14 15 15 12 13 17 16 11 7 10 10 10 10 7 3 5 5 4 3 5 5 -9999 -9999 -9999 -9999 -9999 -9999 -9999 -9999 -9999 -9999 -9999 -9999 -9999 -9999 -9999 -9999 -9999 -9999 -9999 -9999 -9999 -9999 -9999 -9999 -9999 -9999 -9999 -9999 -9999 -9999 -9999 -9999 -9999 -9999 -9999 -9999 -9999 -9999 -9999 -9999 -9999 -9999 -9999 -9999 -9999 -9999
142 141 142 140 138 140 142 142 144 144 144 145 147 149 151 150 151 152 155 157 158 159 159 158 158 156 156 156 161 164 166 178 190 194 190 183 184 199 212 214 224 238 240 241 232 229 228 218 229 243 243 236 212 203 222 237 240 228 236 281 313 352 384 396 415 458 481 478 472 452 487 540 550 553 553 542 543 549 532 535 564 578 584 589 585 559 555 587 604 612 617 617 624 627 632 639 643 645 641 637 637 637 631 637 647 650 653 659 663 670 676 679 683 687 690 692 691 693 695 696 699 701 702 700 692 686 683 699 707 710 712 712 712 708 704 699 690 682 672 662 648 632 624 603 568 565 605 626 630 634 632 624 621 631 631 629 630 643 661 671 677 682 681 681 674 668 663 658 652 645 630 597 597 618 634 640 641 641 638 629 617 616 625 629 629 626 620 612 603 590 574 558 545 536 524 514 508 510 522 522 516 511 503 517 522 506 494 507 495 456 413 334 334 331 344 374 485 506 500 501 503 493 502 524 520 522 533 531 524 522 523 525 528 535 540 547 548 542 534 532 522 521 533 534 537 538 541 545 544 554 563 559 559 555 541 526 501 469 465 485 524 543 545 537 511 511 499 486 497 516 528 514 506 522 520 515 501 494 501 504 500 486 477 469 462 454 456 467 480 491 492 484 475 475 470 468 472 475 484 489 490 478 461 439 413 393 378 330 250 199 172 250 320 366 390 402 423 433 441 449 450 453 452 448 450 452 448 440 434 429 422 422 427 427 434 441 449 448 442 435 442 452 459 461 463 462 455 449 452 453 447 439 431 436 432 411 389 391 385 363 351 353 356 348 346 341 323 300 275 212 152 192 289 341 341 349 354 348 338 331 336 334 338 342 357 369 367 363 368 362 348 337 327 322 315 315 306 287 290 277 288 294 304 318 328 339 352 360 361 366 382 394 398 402 402 407 412 416 414 408 401 393 395 392 383 379 380 380 388 392 397 388 367 331 287 254 253 257 281 316 332 338 337 328 304 271 250 225 201 154 98 65 66 105 151 151 178 218 264 303 306 291 269 250 233 218 204 195 197 190 179 147 119 75 54 64 103 130 139 128 117 128 137 150 169 187 209 234 251 250 247 222 189 131 86 86 62 49 45 42 38 37 35 35 33 35 33 35 33 31 31 32 30 26 28 28 29 29 28 25 26 27 25 22 27 25 26 24 25 18 21 25 25 21 22 22 21 25 26 24 21 23 22 23 24 27 25 25 23 20 21 20 17 18 17 18 14 15 15 12 13 17 16 11 7 10 10 10 10 7 3 5 5 4 3 5 5 -9999 -9999 -9999 -9999 -9999 -9999 -9999 -9999 -9999 -9999 -9999 -9999 -9999 -9999 -9999 -9999 -9999 -9999 -9999 -9999 -9999 -9999 -9999 -9999 -9999 -9999 -9999 -9999 -9999 -9999 -9999 -9999 -9999 -9999 -9999 -9999 -9999 -9999 -9999 -9999 -9999 -9999 -9999 -9999 -9999 -9999
142 141 142 140 138 140 142 142 144 144 144 145 147 149 151 150 151 152 155 157 158 159 159 158 158 160 160 162 165 166 171 183 194 202 199 190 196 210 234 245 258 269 279 285 272 272 276 258 256 272 272 259 218 215 239 262 268 260 267 313 348 373 418 454 494 504 520 527 530 514 503 539 560 569 570 566 565 569 549 560 585 598 605 606 601 584 580 601 609 616 622 622 627 633 639 647 648 648 646 644 643 640 637 635 649 654 658 663 666 672 678 682 686 686 687 687 688 689 690 690 693 697 699 695 685 671 678 697 704 705 707 707 705 704 700 695 687 681 671 661 651 627 609 594 569 555 598 621 628 629 628 620 612 617 614 624 641 657 665 673 676 676 675 675 668 663 656 652 646 642 626 626 594 609 626 632 633 632 630 621 611 613 621 627 628 626 617 609 602 593 579 562 548 538 529 520 496 489 498 509 499 479 466 500 518 508 489 485 462 427 354 321 321 373 406 431 496 506 495 490 485 474 504 519 517 517 531 526 516 514 516 527 534 541 548 552 555 542 531 525 519 514 523 526 528 531 541 541 541 547 550 546 546 549 534 512 472 463 495 522 537 541 537 530 509 484 477 480 492 517 532 519 501 514 511 513 501 486 494 504 500 492 483 475 466 453 452 463 475 490 497 491 484 484 476 465 462 466 478 488 493 486 471 453 431 423 405 368 276 178 196 244 349 374 402 430 443 447 449 450 448 446 445 440 443 446 446 446 435 428 421 420 428 428 439 445 448 448 436 425 437 454 455 456 457 456 449 432 436 443 439 430 424 437 429 408 384 370 362 347 326 321 326 324 335 360 353 335 315 244 186 209 286 339 339 350 351 342 328 316 322 332 344 348 354 353 349 360 368 359 347 330 311 307 301 301 299 283 269 275 296 316 323 334 338 346 362 374 383 383 392 396 397 399 399 406 412 415 413 413 410 408 407 406 405 401 396 392 385 386 392 391 367 329 288 269 278 285 296 317 329 329 330 323 302 265 217 177 151 115 81 65 65 88 133 133 164 208 253 290 292 277 251 223 213 213 212 213 213 200 185 168 138 71 50 68 109 128 119 113 128 147 152 161 166 179 193 207 217 226 221 202 139 83 61 61 50 41 39 37 36 34 32 32 31 33 31 32 32 32 31 30 29 27 24 23 27 29 26 24 26 22 25 24 20 22 18 22 24 23 25 24 25 22 21 24 24 28 25 23 22 23 22 22 21 24 24 23 22 20 22 19 19 18 17 17 18 15 17 14 12 10 13 14 14 12 12 9 11 8 5 4 5 4 2 -9999 -9999 -9999 -9999 -9999 -9999 -9999 -9999 -9999 -9999 -9999 -9999 -9999 -9999 -9999 -9999 -9999 -9999 -9999 -9999 -9999 -9999 -9999 -9999 -9999 -9999 -9999 -9999 -9999 -9999 -9999 -9999 -9999 -9999 -9999 -9999 -9999 -9999 -9999 -9999 -9999 -9999 -9999 -9999 -9999 -9999 -9999 -9999
143 144 143 142 141 140 142 143 144 146 146 147 150 149 152 152 152 154 156 157 159 162 160 159 160 164 164 168 174 173 174 180 192 209 211 201 214 219 247 277 300 322 333 334 324 320 323 312 303 296 296 278 236 237 272 312 318 314 303 327 382 425 474 504 513 515 539 548 550 540 530 528 558 579 587 590 592 590 577 585 603 612 617 614 600 587 598 608 619 624 624 628 632 638 644 649 649 651 650 648 647 647 645 645 652 656 661 663 668 676 680 685 688 686 684 683 684 686 686 684 689 694 697 694 685 670 678 692 697 700 701 701 700 699 696 689 683 676 668 661 656 637 624 612 590 558 583 614 621 621 621 612 598 606 623 634 647 657 663 669 671 669 666 664 661 655 647 643 639 633 620 620 590 605 619 625 626 623 620 613 603 609 618 622 625 622 613 608 601 592 582 570 566 550 536 525 519 513 501 481 456 455 433 413 428 444 461 455 406 330 309 358 358 394 400 416 470 466 453 434 431 460 496 509 503 507 504 502 501 509 522 536 539 544 545 543 547 541 529 527 520 508 510 513 517 524 531 536 531 527 525 518 518 512 510 483 446 473 511 531 533 527 515 515 515 497 466 483 503 519 527 513 493 498 496 494 491 479 486 499 502 498 500 495 474 458 446 454 464 476 495 504 500 500 490 478 463 450 462 472 476 475 465 453 442 435 397 369 328 173 149 235 304 375 407 435 441 449 450 446 440 430 426 423 420 427 439 441 439 434 432 424 435 435 441 437 435 436 430 418 434 443 448 448 450 451 450 447 442 437 423 405 394 415 434 429 410 390 365 348 328 317 327 318 307 348 349 332 315 283 249 254 294 332 332 348 349 332 309 300 317 330 333 339 341 326 325 334 338 338 334 329 318 302 281 275 263 265 282 295 303 309 318 326 329 341 357 379 400 399 396 391 395 400 400 402 408 413 413 410 403 401 403 406 403 401 403 400 392 385 365 362 379 380 356 349 350 348 344 329 312 298 300 299 284 247 197 203 154 137 121 87 61 66 103 103 141 191 234 265 270 251 226 204 206 220 231 234 223 204 183 161 117 62 49 61 104 115 114 129 140 144 145 140 143 154 169 181 199 209 205 165 92 60 48 48 44 39 35 35 31 32 31 33 33 31 29 27 30 30 28 28 27 26 25 24 26 28 29 24 24 23 20 26 22 22 21 22 22 20 22 22 21 23 22 22 22 22 23 24 23 23 23 21 22 24 22 21 23 20 20 19 17 18 17 17 17 15 14 13 15 13 14 15 14 11 8 11 10 5 6 4 3 5 3 -9999 -9999 -9999 -9999 -9999 -9999 -9999 -9999 -9999 -9999 -9999 -9999 -9999 -9999 -9999 -9999 -9999 -9999 -9999 -9999 -9999 -9999 -9999 -9999 -9999 -9999 -9999 -9999 -9999 -9999 -9999 -9999 -9999 -9999 -9999 -9999 -9999 -9999 -9999 -9999 -9999 -9999 -9999 -9999 -9999 -9999 -9999 -9999
143 144 144 144 144 142 143 144 147 147 147 149 151 152 152 154 154 156 157 159 161 162 162 162 164 168 170 177 186 182 178 188 196 218 230 216 224 254 268 296 333 350 359 363 357 345 359 366 360 349 349 306 261 268 311 358 376 363 350 364 425 497 514 526 530 534 561 567 569 568 566 563 567 588 600 607 609 608 603 595 610 618 619 613 607 607 605 616 622 627 627 640 647 650 652 655 655 657 658 658 658 656 656 654 657 662 665 667 670 673 677 679 679 677 672 665 669 665 666 683 690 695 697 692 685 668 665 677 686 688 689 689 686 685 682 673 670 667 662 655 649 638 626 616 602 561 560 592 607 605 599 584 592 614 624 636 642 650 656 661 659 655 651 648 644 638 632 622 619 615 610 610 584 592 605 609 609 606 602 589 594 610 618 620 617 614 608 598 589 581 576 576 572 556 541 534 525 517 511 500 489 478 452 407 379 389 410 409 361 300 337 413 413 443 428 413 427 424 427 434 437 441 478 494 495 500 496 495 505 514 526 535 536 539 538 536 538 534 530 529 523 508 505 507 513 518 520 526 529 525 519 512 512 505 503 477 445 462 492 524 526 515 495 505 512 490 466 490 504 516 518 504 487 489 490 489 482 473 482 493 493 491 498 494 474 457 443 452 463 472 494 502 498 498 487 478 464 448 454 463 467 468 462 452 443 420 381 343 261 164 151 216 296 369 412 433 442 446 450 446 435 427 421 417 420 427 438 441 440 437 436 430 429 429 441 431 420 424 417 418 433 439 441 442 445 448 447 447 449 449 441 428 404 387 406 413 399 374 353 333 326 337 336 324 302 318 327 323 304 267 235 240 283 323 323 342 347 329 305 301 316 319 313 321 331 326 313 306 305 310 314 315 309 294 273 254 258 280 294 306 316 332 344 334 327 330 345 369 392 396 389 390 395 399 399 403 409 414 418 413 406 400 397 399 399 398 398 399 395 385 366 349 373 389 386 382 373 364 352 333 319 273 262 263 247 218 228 252 254 226 177 132 90 64 64 64 81 142 184 195 186 181 183 198 212 221 227 218 202 182 145 122 91 50 50 54 80 95 103 108 118 137 146 146 151 162 183 191 164 124 96 66 52 43 39 39 36 33 31 32 31 31 32 30 28 31 28 25 25 19 22 25 23 28 25 25 24 23 24 21 25 21 20 21 18 20 21 18 20 22 20 18 22 20 23 21 21 23 21 19 21 22 19 21 20 19 18 19 17 16 17 20 16 16 15 16 15 12 12 13 13 13 13 12 13 11 10 8 6 8 6 7 4 3 -9999 -9999 -9999 -9999 -9999 -9999 -9999 -9999 -9999 -9999 -9999 -9999 -9999 -9999 -9999 -9999 -9999 -9999 -9999 -9999 -9999 -9999 -9999 -9999 -9999 -9999 -9999 -9999 -9999 -9999 -9999 -9999 -9999 -9999 -9999 -9999 -9999 -9999 -9999 -9999 -9999 -9999 -9999 -9999 -9999 -9999 -9999 -9999 -9999
146 147 148 148 146 148 149 150 150 150 152 153 154 154 155 155 157 158 159 162 165 166 166 168 171 179 185 187 213 209 210 222 238 256 272 278 279 288 315 349 369 384 400 414 415 411 412 412 402 357 357 312 318 351 391 441 491 501 474 448 490 530 547 563 575 582 592 603 605 605 605 603 601 593 608 621 625 628 628 625 623 629 630 629 629 628 628 630 636 640 640 645 651 653 656 657 659 660 661 662 661 661 660 660 661 662 663 664 667 668 671 671 672 669 662 649 652 660 676 687 692 695 695 692 684 669 655 667 676 679 679 679 676 677 674 668 660 662 657 650 643 632 623 613 602 567 542 587 597 599 585 584 592 614 624 636 642 650 656 661 659 655 651 648 644 638 632 622 619 615 610 610 584 592 605 609 609 606 596 589 594 610 618 620 617 614 608 598 589 581 576 576 572 556 541 534 525 517 511 500 489 478 452 407 379 389 410 409 361 300 337 413 413 443 428 413 427 424 427 434 437 441 478 494 495 500 496 495 505 514 526 535 536 539 538 536 538 534 530 529 523 508 505 507 513 518 520 526 529 525 519 512 512 505 503 477 445 462 492 524 526 515 495 505 512 490 466 490 504 516 518 504 487 489 490 489 482 473 482 493 493 491 498 494 474 457 443 452 463 472 494 502 498 498 487 478 464 448 454 463 467 468 462 452 443 420 381 343 261 164 151 216 296 369 412 433 442 446 450 446 435 427 421 417 420 427 438 441 440 437 436 430 429 429 441 431 420 424 417 418 433 439 441 442 445 448 447 447 449 449 441 428 404 387 406 413 399 374 353 333 326 337 336 324 302 318 327 323 304 267 235 240 283 323 323 342 347 329 305 301 316 319 313 321 331 326 313 306 305 310 314 315 309 294 273 254 258 280 294 306 316 332 344 334 327 330 345 369 392 396 389 390 395 399 399 403 409 414 418 413 406 400 397 399 399 398 398 399 395 385 366 349 373 389 386 382 373 364 352 333 319 273 262 263 247 218 228 252 254 226 177 132 90 64 64 64 81 142 184 195 186 181 183 198 212 221 227 218 202 182 145 122 91 50 50 54 80 95 103 108 118 137 146 146 151 162 183 191 164 124 96 66 52 43 39 39 36 33 31 32 31 31 32 30 28 31 28 25 25 19 22 24 26 27 26 20 23 21 22 20 24 20 22 20 18 17 22 22 20 19 20 21 18 17 19 20 20 22 21 19 20 20 21 20 18 19 18 19 18 16 18 18 19 16 14 16 13 13 11 9 12 15 13 11 10 9 9 8 10 11 7 6 6 3 -9999 -9999 -9999 -9999 -9999 -9999 -9999 -9999 -9999 -9999 -9999 -9999 -9999 -9999 -9999 -9999 -9999 -9999 -9999 -9999 -9999 -9999 -9999 -9999 -9999 -9999 -9999 -9999 -9999 -9999 -9999 -9999 -9999 -9999 -9999 -9999 -9999 -9999 -9999 -9999 -9999 -9999 -9999 -9999 -9999 -9999 -9999 -9999 -9999
